ply
format ascii 1.0
element vertex 128
property float x
property float y
property float z
end_header
5915.213770 2748.645529 9243.869781
6473.783549 3074.143026 10399.353503
6374.325980 3101.267817 10399.353503
6383.367577 3101.267817 10399.353503
4947.561952 2538.880476 8319.482803
5481.217108 2829.015281 9243.869781
4925.862119 2553.347031 8319.482803
4911.395564 2560.580309 8319.482803
4918.628841 2560.580309 8319.482803
5441.032231 2853.126207 9243.869781
5432.995256 2861.163182 9243.869781
5424.958281 2869.200158 9243.869781
4723.330343 2719.712418 8319.482803
4622.064455 2835.444862 8319.482803
3427.460822 2314.648867 6399.602156
4037.484102 2742.069822 7563.166184
4030.908395 2748.645529 7563.166184
3694.999363 2525.619466 6932.902335
3688.971631 2531.647198 6932.902335
3338.435865 2420.366002 6399.602156
7245.333171 5244.126338 13865.804671
3360.692104 2459.314421 6399.602156
3592.527928 2706.451409 6932.902335
2869.200158 2169.983312 5546.321868
3127.001594 2759.773649 6399.602156
3121.437534 2765.337708 6399.602156
2898.477710 2572.980213 5942.487716
2893.311083 2578.146840 5942.487716
2700.423678 2411.092569 5546.321868
2888.144456 2588.480094 5942.487716
2695.601493 2420.736940 5546.321868
2695.601493 2425.559125 5546.321868
2882.977829 2603.979975 5942.487716
2882.977829 2609.146602 5942.487716
2685.957122 2440.025680 5546.321868
2681.134937 2444.847865 5546.321868
2676.312752 2449.670050 5546.321868
2676.312752 2454.492236 5546.321868
2676.312752 2459.314421 5546.321868
2671.490567 2464.136606 5546.321868
2666.668382 2468.958791 5546.321868
2500.001608 2319.169665 5199.676752
2352.942690 2187.002789 4893.813413
2657.024011 2483.425346 5546.321868
2652.201826 2488.247532 5546.321868
2647.379641 2493.069717 5546.321868
2831.311560 2676.312752 5942.487716
2831.311560 2681.479379 5942.487716
2642.557456 2507.536272 5546.321868
2637.735271 2512.358457 5546.321868
2637.735271 2517.180642 5546.321868
2472.876816 2364.377651 5199.676752
2472.876816 2368.898449 5199.676752
2632.913086 2531.647198 5546.321868
2468.356018 2377.940047 5199.676752
2459.314421 2382.460845 5199.676752
2463.835219 2382.460845 5199.676752
2820.978306 2722.812394 5942.487716
2454.793622 2386.981644 5199.676752
2454.793622 2391.502442 5199.676752
2613.624345 2555.758123 5546.321868
2613.624345 2560.580309 5546.321868
2450.272824 2405.064838 5199.676752
2608.802160 2570.224679 5546.321868
2608.802160 2575.046864 5546.321868
2603.979975 2579.869049 5546.321868
2603.979975 2584.691234 5546.321868
2441.231226 2427.668831 5199.676752
2594.335605 2594.335605 5546.321868
2769.312037 2784.811918 5942.487716
2764.145410 2789.978545 5942.487716
2764.145410 2795.145171 5942.487716
2764.145410 2800.311798 5942.487716
2575.046864 2618.446530 5546.321868
2579.869049 2618.446530 5546.321868
2272.100174 2314.648867 4893.813413
2267.845305 2318.903736 4893.813413
2555.758123 2632.913086 5546.321868
2391.502442 2472.876816 5199.676752
1630.775338 2054.908440 3781.583092
1786.619594 2264.015923 4159.741401
1989.151370 2515.573247 4621.934890
1977.095907 2519.591735 4621.934890
1981.114394 2519.591735 4621.934890
2089.140797 2672.057883 4893.813413
2215.191298 2843.582299 5199.676752
2210.670500 2848.103098 5199.676752
2080.631058 2684.822490 4893.813413
2080.631058 2689.077360 4893.813413
2080.631058 2693.332229 4893.813413
1965.040444 2547.721148 4621.934890
2076.376189 2701.841967 4893.813413
2072.121320 2706.096837 4893.813413
2197.108104 2879.748688 5199.676752
2067.866451 2714.606575 4893.813413
1952.984981 2567.813586 4621.934890
1948.966494 2571.832074 4621.934890
1846.389310 2440.279479 4378.675159
1944.948006 2579.869049 4621.934890
1944.948006 2583.887537 4621.934890
2055.101843 2740.135791 4893.813413
2055.101843 2744.390660 4893.813413
2055.101843 2748.645529 4893.813413
2050.846974 2752.900398 4893.813413
2174.504111 2929.477472 5199.676752
2046.592104 2761.410137 4893.813413
2169.983312 2938.519069 5199.676752
2165.462514 2943.039867 5199.676752
2165.462514 2947.560666 5199.676752
2033.827497 2778.429614 4893.813413
2029.572627 2782.684483 4893.813413
2151.900118 2961.123062 5199.676752
2147.379320 2965.643860 5199.676752
2142.858521 2970.164659 5199.676752
2016.808020 2799.703960 4893.813413
2012.553151 2803.958829 4893.813413
2133.816924 2983.727055 5199.676752
2008.298281 2812.468568 4893.813413
1896.726155 2660.238802 4621.934890
2004.043412 2820.978306 4893.813413
1888.689179 2668.275777 4621.934890
1789.284486 2531.647198 4378.675159
2004.043412 2829.488045 4893.813413
1987.023935 2833.742914 4893.813413
2417.981405 3440.973538 5942.487716
2106.692132 3015.372645 5199.676752
1876.633716 2684.349727 4621.934890
1781.670509 2546.875151 4378.675159
